# .PCD v0.7 - Point Cloud Data file format
VERSION 0.7
FIELDS x y z rgb normal_x normal_y normal_z curvature
SIZE 4 4 4 4 4 4 4 4
TYPE F F F F F F F F
COUNT 1 1 1 1 1 1 1 1
WIDTH 548
HEIGHT 1
VIEWPOINT 0 0 0 1 0 0 0
POINTS 548
DATA ascii
0.11709955 0.0096666561 -0.24428475 1.0135721e-38 0.10626983 0.99185205 -0.070257857 0
0.12105255 0.0092121651 -0.24254169 1.0874006e-38 0.16739295 0.98469532 -0.048526172 0
0.12809387 0.0079538831 -0.24324429 1.1151676e-38 0.1721344 0.98362523 -0.05339678 0
0.13259128 0.0070204334 -0.2458171 1.0504868e-38 0.1482107 0.9877193 -0.049438801 0
0.13990816 0.0074381484 -0.24329165 9.9524099e-39 -0.04986437 0.99728763 -0.054138456 0
0.14456116 0.0077513014 -0.2409272 1.013644e-38 -0.020703403 0.99947339 -0.024986859 0
-0.41138959 -0.015602304 -0.23812836 1.0135358e-38 -0.15446769 0.98746496 -0.032445263 0
-0.40521199 -0.01458273 -0.23650859 9.6743824e-39 -0.15446769 0.98746496 -0.032445263 0
-0.39866465 -0.01323837 -0.23723108 1.0042801e-38 -0.23571378 0.97182256 0 0
0.35591513 -0.013629231 -0.23980024 5.8972553e-39 0.29869363 0.95255357 0.05851401 0
-0.3929902 -0.01164424 -0.23513468 1.0043162e-38 -0.28483427 0.9585768 0 0
-0.38028449 -0.0083614029 -0.23710966 1.0226477e-38 -0.16000929 0.98684138 0.023261275 0
-0.37005126 -0.0070133074 -0.23633131 1.0226477e-38 -0.068792902 0.99763095 0 0
-0.36521229 -0.0070000002 -0.23679227 9.9509693e-39 0 1 0 0
-0.3580856 -0.0070000002 -0.23749295 9.8587709e-39 0 1 0 0
0.2869271 -0.0063424637 -0.23816022 7.8311999e-39 0.032111835 0.99903482 -0.029971045 0
0.29161805 -0.0063762469 -0.23426035 8.0152352e-39 0.032111816 0.99903482 -0.029971045 0
0.29705283 -0.0065724077 -0.23615962 7.5553347e-39 0.0028571193 0.99999565 -0.00071428809 0
0.30402434 -0.0068553151 -0.23684627 7.7397273e-39 0.088516355 0.99607468 -0.00035571004 0
0.30842838 -0.007251299 -0.23737857 8.0159527e-39 0.090728134 0.99587578 0 0
0.33296686 -0.0092874374 -0.23813388 6.2649616e-39 0.10929416 0.9935835 0.029097795 0
0.34412125 -0.010077746 -0.23972814 6.8184899e-39 0.26785624 0.95907581 0.091797262 0
-0.34509844 -0.0058092917 -0.23852108 1.0965483e-38 -0.090330198 0.99576557 -0.017070265 0
-0.33756495 -0.0053429441 -0.23782103 1.0135362e-38 -0.048507132 0.99867606 -0.017120162 0
-0.3298021 -0.0051210434 -0.23918307 1.0688177e-38 -0.030681044 0.99891758 -0.034962118 0
-0.3199158 -0.0046830322 -0.23612124 1.004281e-38 -0.057368215 0.99831915 -0.0082356241 0
-0.31537369 -0.004287133 -0.2376966 9.7662235e-39 -0.083973527 0.99629623 0.018502621 0
-0.30823654 -0.0035752165 -0.23531468 9.5818295e-39 -0.10651495 0.99413967 0.01846257 0
-0.30159903 -0.0029088391 -0.23738754 9.6740279e-39 -0.10090056 0.99489248 0.0028425553 0
-0.29368827 -0.0020565698 -0.23404308 9.5818323e-39 -0.11074275 0.99384511 0.0028395627 0
-0.28557709 -0.0011334935 -0.23465149 9.4896366e-39 -0.15660587 0.98760444 -0.010581475 0
-0.27829432 -0.00026615243 -0.23897417 9.5818351e-39 -0.06806805 0.99265897 -0.099974953 0
-0.23666692 -3.1380423e-05 -0.23875849 9.5832672e-39 0.078775935 0.98469907 -0.15544181 0
0.20851672 -0.0003900264 -0.23788223 8.844626e-39 0.2302918 0.94547945 -0.2302918 0
0.21009564 -0.00027735866 -0.23584072 9.1208541e-39 0.2302918 0.94547945 -0.2302918 0
0.22474793 -0.002824601 -0.23571676 8.2929011e-39 0.19716316 0.97536635 -0.098930024 0
0.2301089 -0.0037057749 -0.23716655 1.050631e-38 0.11059936 0.99320626 -0.036181103 0
0.24589124 -0.005006162 -0.23499006 9.2141316e-39 0.031385243 0.99862099 -0.042084768 0
0.25109798 -0.005256603 -0.2370497 8.6609606e-39 0.031385243 0.99862099 -0.042084768 0
0.25643116 -0.0055833622 -0.23843446 8.7531562e-39 0.05196983 0.99668163 -0.062648579 0
-0.26771411 0.00057828112 -0.23498164 9.5818295e-39 -0.014922841 0.99485582 -0.10019621 0
-0.25599623 0.00074142526 -0.23680675 9.5818351e-39 0.014975092 0.99833965 -0.055621784 0
-0.24556923 0.00040995836 -0.23679812 9.5825483e-39 0.048322465 0.99487412 -0.088828057 0
-0.23437671 0.0001427859 -0.23649453 9.6747468e-39 0.078775935 0.98469907 -0.15544181 0
-0.22802192 0.00041281144 -0.23618554 1.0227199e-38 -0.16085921 0.97490537 -0.1538958 0
-0.22537445 0.0006472728 -0.23739466 9.5821924e-39 -0.14133881 0.97466755 -0.17333944 0
-0.21949625 0.0019612117 -0.23492585 9.5811078e-39 -0.12171111 0.97368985 -0.1926515 0
-0.20137143 0.004807801 -0.2381333 8.9364601e-39 -0.03326036 0.97009289 -0.24044447 0
-0.19326246 0.005453588 -0.23709951 9.4885576e-39 -0.092974424 0.97867817 -0.18315266 0
-0.19115528 0.00537404 -0.23859425 8.9364629e-39 -0.092974424 0.97867817 -0.18315266 0
-0.18488958 0.0053491546 -0.23897414 8.659876e-39 0.037886046 0.98223007 -0.18381739 0
-0.17741776 0.0057671256 -0.23661728 1.078073e-38 -0.044004191 0.99364281 -0.10362275 0
-0.17206474 0.0055725826 -0.23657422 1.1423578e-38 0.10316973 0.98929876 -0.10316973 0
-0.16721532 0.005046431 -0.23760772 1.1425369e-38 0.069499269 0.9951582 -0.069499269 0
-0.1612464 0.0048216325 -0.23664641 1.0687811e-38 0.00099126855 0.99936235 -0.035691522 0
-0.15408212 0.0052500423 -0.23695385 1.0871845e-38 -0.046662763 0.99726373 -0.057337631 0
-0.14121947 0.0057969321 -0.23586887 1.0135003e-38 -0.038422372 0.99613553 -0.078979336 0
-0.13688983 0.0058357301 -0.2376083 9.6747468e-39 -0.041985516 0.99626666 -0.07543163 0
0.17232478 0.0052243168 -0.23767304 9.30633e-39 0.12698436 0.98765588 -0.091710925 0
0.17614105 0.0049938764 -0.23499353 9.39852e-39 0.1172492 0.98884857 -0.091821671 0
0.18092872 0.0044457116 -0.23478335 9.5829141e-39 0.1172492 0.98884857 -0.091821671 0
0.18625633 0.0030022773 -0.23913175 9.4896338e-39 0.18816076 0.96847445 -0.16325712 0
0.19726855 0.0021519228 -0.23665056 9.2130526e-39 0.12008473 0.972417 -0.19996186 0
-0.18298937 0.00606099 -0.23477879 8.7520716e-39 0.037886046 0.98223007 -0.18381739 0
-0.12112298 0.0069317212 -0.2348914 9.8569758e-39 -0.070844226 0.9918189 -0.10619061 0
-0.11667771 0.0070868628 -0.23683605 1.0596342e-38 -0.080055326 0.99198419 -0.097767532 0
-0.11272953 0.0074200002 -0.23697451 1.2347698e-38 0 1 0 0
-0.10422754 0.0075062029 -0.23622561 1.0041726e-38 -0.029248131 0.99957222 2.9254449e-10 0
-0.098965764 0.00768351 -0.239024 1.1239903e-38 -0.029074667 0.99914336 -0.029446609 0
-0.09386494 0.007584034 -0.23937646 8.7513485e-39 0.029869679 0.99565601 -0.088186696 0
-0.082176059 0.0080026872 -0.23516539 8.9350237e-39 -0.075789601 0.97344482 -0.21601203 0
-0.069168769 0.0083003435 -0.23712112 8.4740456e-39 -0.021323193 0.98253638 -0.18484528 0
-0.06402538 0.0084783873 -0.23634619 7.9205159e-39 -0.0049280566 0.98561031 -0.16896175 0
-0.05740156 0.0092290761 -0.23456046 8.2896557e-39 -0.056517046 0.98904771 -0.13634734 0
-0.043473918 0.0094288858 -0.23745257 1.0042447e-38 -0.021222986 0.99040794 -0.13653484 0
-0.041982275 0.0099026561 -0.23424774 8.7506283e-39 -0.021222986 0.99040794 -0.13653484 0
-0.029559473 0.010006859 -0.23400545 8.8428239e-39 0.049803331 0.99606699 -0.073282078 0
-0.016348615 0.009116631 -0.23679608 9.2123253e-39 0.017759368 0.99452239 -0.10300414 0
-0.0001514093 0.010457925 -0.23711832 1.2532447e-38 -0.14072043 0.98999262 -0.010607047 0
0.014517939 0.010910095 -0.23492232 1.1240261e-38 0.0014111116 0.98776776 -0.15592626 0
0.03448182 0.011525566 -0.23404127 9.5825483e-39 -0.052069101 0.99858618 0.01069912 0
0.039691746 0.011677384 -0.23674405 8.8442644e-39 -0.010359798 0.9999463 0.00036032443 0
0.043468826 0.011687446 -0.23872046 8.7527905e-39 0.02070008 0.99931449 -0.030693235 0
0.052404169 0.011728147 -0.2371483 9.3052482e-39 -0.03139824 0.99903584 -0.030684678 0
0.063868649 0.011949039 -0.23826458 1.0135361e-38 -8.9137908e-10 0.99914294 -0.041393053 0
0.10659107 0.011491908 -0.23598179 9.3981557e-39 0.14711298 0.98544598 -0.085170716 0
0.11127243 0.010934393 -0.23434639 8.6605906e-39 0.14711298 0.98544598 -0.085170716 0
0.1145112 0.010253931 -0.23770671 1.0412308e-38 0.10642996 0.99334663 -0.043991074 0
0.12654018 0.0086219069 -0.23560564 1.0689615e-38 0.1626436 0.98571873 -0.043653268 0
0.13702191 0.0075743441 -0.23812437 1.0413028e-38 -0.04986437 0.99728763 -0.054138456 0
0.14973366 0.007579152 -0.23889928 9.8598541e-39 0.099472962 0.99472946 -0.024868263 0
0.1527918 0.0073046647 -0.23764625 9.6751055e-39 0.09947294 0.99472946 -0.024868246 0
0.15970536 0.0064602615 -0.23745929 9.4907142e-39 0.13855676 0.98969799 -0.036053538 0
0.16424046 0.0060180807 -0.23815693 9.6751097e-39 0.072614729 0.99667281 -0.037019268 0
0.064642467 0.012103715 -0.23453104 1.1978194e-38 -8.9137908e-10 0.99914294 -0.041393053 0
0.074582905 0.012010028 -0.2378664 1.1519727e-38 -0.0099945767 0.99945658 -0.031411469 0
0.079888307 0.012368585 -0.23425066 9.5821868e-39 -0.076168962 0.99660283 -0.031321783 0
-0.41220143 -0.015473409 -0.22984853 1.2716833e-38 -0.18055442 0.98356503 0 0
0.35547471 -0.014022822 -0.23151855 6.9106897e-39 0.26801348 0.95963883 0.085217848 0
-0.38223845 -0.0088165589 -0.23124063 1.0042083e-38 -0.16000929 0.98684138 0.023261275 0
-0.37781832 -0.0081598498 -0.22918981 1.0318674e-38 -0.15998249 0.98667598 0.029600248 0
-0.36454281 -0.0070000002 -0.23248552 1.0135003e-38 0 1 0 0
-0.35872585 -0.0070890533 -0.22803156 1.0227553e-38 0 0.99955034 0.029986478 0
-0.35290855 -0.0065587065 -0.23270085 1.0043165e-38 -0.10723524 0.99423367 0 0
0.29147637 -0.0062769065 -0.23097873 8.1074309e-39 0.032122638 0.99937159 -0.014987205 0
0.30007926 -0.0065504047 -0.22821313 7.7390015e-39 0.032126248 0.99948382 0 0
0.31049898 -0.0074399388 -0.23152615 7.9241186e-39 0.090728134 0.99587578 0 0
0.3178736 -0.0081489729 -0.22955398 8.2929025e-39 0.086055294 0.99568069 0.034848761 0
0.32058153 -0.0083324034 -0.23120585 7.6475331e-39 0.086107597 0.99628586 0 0
0.32602206 -0.0088223405 -0.23120178 6.2649602e-39 0.086101785 0.99621856 0.011617823 0
0.33459353 -0.0096804146 -0.23089443 6.1720471e-39 0.10921326 0.99284792 0.048224036 0
0.33690828 -0.0099416692 -0.23075792 5.3430025e-39 0.10921326 0.99284792 0.048224036 0
-0.32134986 -0.0046137264 -0.23164578 1.0503427e-38 -0.030691471 0.99925697 -0.023311244 0
-0.30549404 -0.0033598205 -0.23109081 9.7662235e-39 -0.10651495 0.99413967 0.01846257 0
-0.29514289 -0.0023395475 -0.2285835 9.5818323e-39 -0.11062549 0.99279273 0.046093907 0
-0.28951287 -0.00162805 -0.23060854 9.5818309e-39 -0.11071002 0.99355143 0.024472462 0
0.22552921 -0.0025321629 -0.2310506 8.3843723e-39 0.197577 0.97741354 -0.075007856 0
0.23660445 -0.0040976987 -0.23079477 1.0782175e-38 0.085394889 0.99627376 -0.012092307 0
0.24582238 -0.0048332098 -0.23038489 9.6758328e-39 0.031412788 0.99949735 -0.0042835558 0
0.26174358 -0.0053590201 -0.23094083 8.8449959e-39 0.034246884 0.99886763 -0.033025652 0
0.26960316 -0.0057784179 -0.23362312 8.4762134e-39 0.034198165 0.9974466 -0.062696666 0
0.27521732 -0.0058427993 -0.23275609 8.2003468e-39 0.028555369 0.99943715 -0.017607084 0
0.27793023 -0.0059474343 -0.23389727 8.4765693e-39 0.028549833 0.99924344 -0.026408579 0
-0.2674866 0.00098200596 -0.23014018 9.6740265e-39 -0.014970841 0.99805593 -0.060499825 0
-0.259541 0.0010720375 -0.23129636 9.8584192e-39 -0.014922841 0.99485582 -0.10019621 0
-0.2559486 0.0010029434 -0.23210001 9.5818309e-39 0.014975092 0.99833965 -0.055621784 0
-0.25058332 0.0011741142 -0.2282805 9.6743908e-39 0.014961709 0.99744731 -0.069821246 0
-0.24249683 0.00075193227 -0.23233795 9.6751055e-39 0.011382557 0.99597317 -0.088926181 0
-0.23554324 0.00095571973 -0.2293383 9.1212199e-39 0.011372716 0.99511266 -0.098089583 0
-0.23074174 0.001005979 -0.22898898 9.1215744e-39 -0.070430979 0.99270558 -0.097852319 0
-0.22177027 0.0022962452 -0.23062053 9.4899996e-39 -0.16219041 0.9829731 -0.086361133 0
-0.21069801 0.0045335381 -0.23139651 9.2123267e-39 -0.23626019 0.95321107 -0.18859963 0
-0.20995516 0.0047221556 -0.23137379 9.2123267e-39 -0.23626019 0.95321107 -0.18859963 0
-0.15729265 0.0051751081 -0.23321509 9.9506148e-39 -0.068367437 0.9970246 -0.035608031 0
-0.15578482 0.0056521562 -0.2283576 9.7651445e-39 -0.067991681 0.99154484 -0.11052585 0
0.16754036 0.0059723421 -0.23291549 9.3995962e-39 0.072614729 0.99667281 -0.037019268 0
0.17216702 0.0056400932 -0.23278525 9.5839875e-39 0.072614729 0.99667281 -0.037019268 0
0.1787046 0.0054046786 -0.22809932 9.6751097e-39 0.11693878 0.98623061 -0.11693866 0
0.18835589 0.0038960953 -0.23115113 9.7673039e-39 0.10097159 0.98479801 -0.14134248 0
0.2113376 0.00092204195 -0.22939155 9.5807589e-39 0.2322771 0.95363027 -0.19140704 0
-0.20102268 0.0061810287 -0.23211721 9.3063258e-39 -0.13890193 0.98459625 -0.10619114 0
-0.19344603 0.0068417764 -0.23081993 8.1070651e-39 -0.03424795 0.99889755 0.032107372 0
-0.18162426 0.0066708582 -0.23038551 8.9364615e-39 0.038213052 0.99070799 -0.13052751 0
-0.14407171 0.0060479399 -0.23131542 1.0503786e-38 -0.038422372 0.99613553 -0.078979336 0
-0.14093558 0.0063113472 -0.23062734 1.124027e-38 -0.042692348 0.99162841 -0.12186213 0
-0.12929367 0.0069899866 -0.22973862 1.1701607e-38 -0.070143089 0.98200291 -0.17535754 0
-0.12200536 0.0072218128 -0.23119865 1.1793804e-38 -0.059652384 0.99420655 -0.08941482 0
-0.11189439 0.0074199997 -0.2336794 1.0320116e-38 0 1 0 0
-0.10127097 0.0079283472 -0.22852495 9.303802e-39 -0.058075484 0.99153227 -0.11615077 0
-0.093658626 0.0084080687 -0.22823596 8.1974559e-39 -0.058075484 0.99153227 -0.11615077 0
-0.080258161 0.0084122112 -0.23399282 8.1974559e-39 -0.075789601 0.97344482 -0.21601203 0
-0.061187584 0.0095920609 -0.22969575 8.2892928e-39 -0.065904848 0.99570912 -0.064959705 0
-0.058702476 0.0095322505 -0.23182203 7.6442807e-39 -0.056517046 0.98904771 -0.13634734 0
-0.048419617 0.010345788 -0.22920488 9.5803903e-39 -0.021364849 0.9970246 -0.07406459 0
-0.036303248 0.010658392 -0.22849187 9.4881947e-39 -0.021364778 0.99702454 -0.074064642 0
-0.035597071 0.010709378 -0.22800921 9.8569772e-39 -0.021364778 0.99702454 -0.074064642 0
-0.027415449 0.010234264 -0.23025469 9.5811078e-39 0.049682319 0.99364674 -0.10098398 0
-0.012344087 0.0095487582 -0.23193339 1.0503791e-38 0.017759368 0.99452239 -0.10300414 0
-0.0060299006 0.0096601127 -0.23359284 1.1516847e-38 -0.14072043 0.98999262 -0.010607047 0
0.0031351652 0.011086671 -0.23075895 1.0871847e-38 -0.14056396 0.9888919 -0.048316021 0
0.0072346418 0.011715795 -0.22893655 9.2130498e-39 0.017075645 0.99607933 -0.086801119 0
0.014848894 0.011460173 -0.23143467 1.1701596e-38 0.0014111116 0.98776776 -0.15592626 0
0.021602884 0.011660496 -0.22909155 8.9368202e-39 0.0007124783 0.99725199 -0.074080907 0
0.026852127 0.011513221 -0.23116364 1.2346611e-38 -8.9137903e-10 0.999143 -0.041393057 0
0.04551772 0.011724157 -0.22962901 9.4903555e-39 -0.020708801 0.99973559 0.0099973567 0
0.11638488 0.010560526 -0.22949275 9.7665781e-39 0.14733185 0.98691207 -0.065559104 0
0.12418552 0.0092365062 -0.23090388 1.0320111e-38 0.16251433 0.98493528 -0.059089448 0
0.1392785 0.0078755133 -0.23157142 1.1059116e-38 -0.020709822 0.99978322 -0.0021412848 0
0.14828701 0.0078878785 -0.23001444 1.01368e-38 0.044386186 0.99896693 -0.0097394595 0
0.15434115 0.0073795789 -0.22845224 1.0228637e-38 0.099472962 0.99472946 -0.024868213 0
0.1658521 0.0063244426 -0.22952577 9.4907156e-39 0.072253183 0.99171042 -0.10625461 0
0.168437 0.0061819996 -0.22909752 9.4907156e-39 0.072253183 0.99171042 -0.10625461 0
0.057793926 0.012040762 -0.23248526 9.1212199e-39 -0.03139824 0.99903584 -0.030684678 0
0.063677825 0.012306282 -0.23065865 9.0290186e-39 -0.0328038 0.99854523 -0.042794112 0
0.067662112 0.012198832 -0.23223509 1.124207e-38 -8.9137908e-10 0.99914294 -0.041393053 0
0.081366032 0.01262854 -0.23093691 9.7665781e-39 -0.076080032 0.99543935 -0.057553381 0
0.089836262 0.013225006 -0.23119253 1.1795606e-38 -0.076168962 0.99660283 -0.031321783 0
0.090854578 0.013516955 -0.22853138 7.9215879e-39 -0.075938657 0.99358952 -0.083745301 0
0.097717732 0.012638411 -0.23206042 9.8591352e-39 0.082010403 0.98978102 -0.11665277 0
0.10412619 0.012321787 -0.22859345 8.7527877e-39 0.082517639 0.9959029 -0.036990594 0
-0.41298071 -0.015616462 -0.22341606 1.2255854e-38 -0.18055442 0.98356503 0 0
-0.40510762 -0.01425653 -0.22625186 1.1702683e-38 -0.15449354 0.98763007 -0.026807083 0
-0.39983997 -0.013327307 -0.22237565 1.1702683e-38 -0.15449354 0.98763007 -0.026807083 0
0.3506358 -0.01309192 -0.22620866 7.2791093e-39 0.26829293 0.96063942 0.072047889 0
-0.38795885 -0.010310628 -0.2237096 1.0596336e-38 -0.2847701 0.95836091 0.021220829 0
-0.37856886 -0.0084224734 -0.22446507 1.0410514e-38 -0.15244508 0.98806977 0.021878669 0
-0.3726334 -0.0075165764 -0.22260906 1.0779652e-38 -0.15998249 0.98667598 0.029600248 0
-0.36462098 -0.007157681 -0.22574398 1.0226837e-38 -3.3551778e-10 0.99955034 0.029986478 0
-0.34577066 -0.0061542853 -0.2235851 1.0320113e-38 -0.10710674 0.99304223 0.048942756 0
0.2847406 -0.006065446 -0.22270262 8.3840178e-39 0.028559797 0.99959213 0 0
0.29004163 -0.0062277666 -0.22701056 7.5546102e-39 0.032126248 0.99948382 0 0
0.29930964 -0.0065256669 -0.22671986 7.554613e-39 0.032126248 0.99948382 0 0
0.30364493 -0.006817874 -0.22715025 8.1077868e-39 0.089574434 0.99598014 0 0
0.3084372 -0.0072521027 -0.2260073 7.9233955e-39 0.090728134 0.99587572 0 0
0.31710356 -0.0081054308 -0.2264089 7.6464527e-39 0.12054313 0.99270815 0 0
0.32439592 -0.008836207 -0.22602487 8.1074309e-39 0.086055294 0.99568069 0.034848761 0
0.33310089 -0.0098001137 -0.22433254 6.6333812e-39 0.12256477 0.99185318 0.034714796 0
0.34056512 -0.010663852 -0.22417116 5.5266777e-39 0.10921326 0.99284792 0.048224036 0
-0.33856434 -0.0055676484 -0.22306031 1.0135722e-38 -0.070453063 0.99630576 0.049103603 0
-0.33344647 -0.0051758029 -0.2254799 1.0319395e-38 -0.048496429 0.99845564 0.027100921 0
-0.32866955 -0.0049815001 -0.2239292 1.0227559e-38 -0.053118471 0.99822062 0.027094541 0
-0.32267743 -0.0046248743 -0.22497725 1.0319749e-38 -0.044227701 0.99892962 0.013546275 0
-0.31174648 -0.0040221126 -0.22495881 1.0505222e-38 -0.10934049 0.99400443 0 0
-0.30271295 -0.0030466728 -0.22509962 9.8580562e-39 -0.10653269 0.99430513 -0.0028408738 0
-0.29563183 -0.0024848655 -0.22432671 9.765862e-39 -0.086375922 0.99602771 0.021634085 0
-0.28166136 -0.00064038835 -0.22420111 9.5818295e-39 -0.18308036 0.98204005 0.045594677 0
0.22163244 -0.00075243128 -0.22276825 8.5680461e-39 0.32516947 0.92716426 -0.18609494 0
0.23526745 -0.003734149 -0.22209854 7.4627887e-39 0.13638374 0.98931211 -0.051585507 0
0.24863337 -0.0049086199 -0.22667387 9.1233807e-39 0.027132874 0.99963188 0 0
0.26058033 -0.0053333021 -0.22505058 8.569488e-39 0.053719312 0.9985469 -0.0042794822 0
0.2662636 -0.0056583285 -0.22497278 8.6606046e-39 0.034253635 0.99906439 0.02640382 0
0.27288342 -0.0059212083 -0.22361383 8.4772938e-39 0.034253635 0.99906439 0.02640382 0
-0.27488706 0.00047925391 -0.2244571 9.5825511e-39 -0.15658832 0.98749369 0.018339152 0
-0.26995441 0.00094158156 -0.22433652 9.7662263e-39 -0.054196592 0.99835819 0.018540921 0
-0.26028225 0.0011928397 -0.22607231 9.858422e-39 -0.014995096 0.99967313 -0.020707494 0
-0.24847531 0.0013629263 -0.22502913 9.7662277e-39 -0.0096541084 0.99892735 -0.045286853 0
-0.22066665 0.0028383271 -0.22652316 9.7669452e-39 -0.16219041 0.9829731 -0.086361133 0
-0.21287668 0.0040349802 -0.22749403 9.3056069e-39 -0.18403164 0.98252392 -0.027912803 0
-0.20824212 0.0051131374 -0.22765343 8.1996167e-39 -0.24046057 0.97015792 0.031183597 0
-0.16244546 0.0058087171 -0.22731534 8.3832863e-39 0.10212499 0.97928065 -0.17487141 0
0.17593573 0.0058157248 -0.22695991 9.5839917e-39 0.08910618 0.99035394 -0.10610927 0
0.18307893 0.0049172048 -0.22783622 9.3063244e-39 0.11693878 0.98623061 -0.11693866 0
0.19114941 0.0040477975 -0.22730526 9.859138e-39 0.10580038 0.98747015 -0.11708564 0
0.19296013 0.0042830948 -0.22368462 9.859138e-39 0.10580038 0.98747015 -0.11708564 0
0.20181926 0.0032000232 -0.22604263 9.4892765e-39 0.10693401 0.9895395 -0.096833423 0
0.20418629 0.0030946741 -0.2245457 9.5807533e-39 0.13869192 0.98562765 -0.096450627 0
0.21235254 0.0014458965 -0.22554992 9.1208597e-39 0.2322771 0.95363027 -0.19140704 0
0.21766025 0.00016511568 -0.22513752 8.7524345e-39 0.32516947 0.92716426 -0.18609494 0
-0.20076622 0.0063763587 -0.22414847 8.7527905e-39 -0.03424795 0.99889755 0.032107372 0
-0.19693077 0.0066207931 -0.22766194 8.4762036e-39 -0.03424795 0.99889755 0.032107372 0
-0.19004269 0.0070305262 -0.22677837 9.0286557e-39 -0.083189815 0.99614733 -0.027749771 0
-0.18516855 0.0071410066 -0.22402249 8.9371817e-39 0.013921797 0.99951535 -0.027843595 0
-0.1715569 0.0067862407 -0.22573803 9.2130498e-39 0.023068246 0.99677241 -0.076893933 0
-0.16381739 0.0067515285 -0.22283679 8.9364629e-39 0.10212499 0.97928065 -0.17487141 0
-0.15611812 0.0062123532 -0.2248629 1.068818e-38 -0.023474202 0.98415637 -0.17574207 0
-0.15143794 0.0060988967 -0.22702387 9.1197751e-39 -0.067991681 0.99154484 -0.11052585 0
-0.14235082 0.0069472711 -0.22424527 1.0595261e-38 -0.046184901 0.99401331 -0.099018134 0
-0.13078107 0.0075342362 -0.22525203 9.9491715e-39 -0.055097759 0.98893416 -0.13774425 0
-0.12376235 0.008002691 -0.22438146 1.1516853e-38 -0.023436135 0.99425954 -0.10439716 0
-0.11864538 0.0080314493 -0.22521769 9.672586e-39 -0.012075576 0.99446017 -0.10441823 0
-0.11035043 0.0083299372 -0.22323224 1.2717198e-38 0 0.99320859 -0.11634718 0
-0.10399716 0.0081409477 -0.22536749 9.0272166e-39 -0.029049985 0.99278945 -0.11629808 0
-0.10127929 0.0081437565 -0.22668195 8.0130646e-39 -0.05807545 0.99153227 -0.11615081 0
-0.087350748 0.0092188567 -0.2226439 8.1052589e-39 3.6236611e-09 0.99320865 -0.11634715 0
-0.081782669 0.0092739658 -0.22294794 8.4736896e-39 -0.077562742 0.99621904 -0.03913714 0
-0.074552141 0.0097114751 -0.22209083 8.5662412e-39 -0.012846204 0.99914676 -0.039252158 0
-0.067465566 0.0097162165 -0.22381878 8.5662412e-39 -0.0049943961 0.99887818 -0.047089953 0
-0.060539585 0.0097681843 -0.22758895 9.4881933e-39 -0.083895363 0.99536914 -0.046924528 0
-0.031063486 0.010762749 -0.22700877 1.0503417e-38 0.0085475612 0.99721581 -0.07407885 0
-0.025156274 0.010864096 -0.22360003 1.0964767e-38 0.049607407 0.99214858 -0.11480567 0
-0.019401126 0.010577792 -0.22427835 1.1887439e-38 -3.5675649e-09 0.99337161 -0.11494718 0
-0.012499366 0.010621367 -0.22371428 1.031831e-38 0.017697211 0.99104178 -0.13237479 0
-0.0087344805 0.010749858 -0.22224899 1.1518289e-38 0.017697211 0.99104178 -0.13237479 0
0.0010661405 0.011219028 -0.22500427 1.1609409e-38 -0.1402075 0.98638403 -0.085956238 0
0.0065754433 0.011781813 -0.2275326 8.4758392e-39 -0.1402075 0.98638403 -0.085956238 0
0.015374575 0.011947362 -0.22512946 9.2134015e-39 0.0014249505 0.99745774 -0.071246929 0
0.029701352 0.011834309 -0.22692563 9.5821868e-39 0 0.99703777 -0.076914258 0
0.042120334 0.011680621 -0.22278647 8.9364629e-39 0.066087022 0.99485809 -0.076746114 0
0.11465212 0.010926914 -0.22787127 9.582184e-39 0.14733185 0.98691207 -0.065559104 0
0.13029069 0.0085542295 -0.22588348 1.0413028e-38 0.16243516 0.98445535 -0.066802248 0
0.14104491 0.007811347 -0.22219838 1.1519375e-38 0.067546822 0.99542701 -0.067546755 0
0.1462272 0.0078947144 -0.2251858 1.1243506e-38 0.0042638043 0.99977648 0.020709658 0
0.15290308 0.0075479168 -0.22223164 1.105912e-38 0.054194298 0.99831623 0.020679412 0
0.1591942 0.0069818567 -0.22475238 9.7676585e-39 0.13579288 0.99015546 -0.033948183 0
0.16372855 0.0066618435 -0.22686291 9.8594982e-39 -7.7284246e-10 0.99941278 -0.034265578 0
0.0070641926 0.012036682 -0.22528775 9.1208513e-39 0.017075645 0.99607933 -0.086801119 0
0.017544186 0.012108178 -0.22283463 8.7520716e-39 0.0014249505 0.99745774 -0.071246929 0
0.027304567 0.012176655 -0.22231118 1.0320116e-38 -0.0056996467 0.99744254 -0.071245834 0
0.031554129 0.012014762 -0.22458641 9.0286557e-39 0 0.99703777 -0.076914258 0
0.053004701 0.012112396 -0.22691351 9.5818295e-39 -0.085396878 0.99629724 0.0099629723 0
0.059792802 0.012406998 -0.22517881 9.8587737e-39 -0.031382304 0.99852878 -0.044220518 0
0.068548918 0.012793004 -0.22437704 8.9364601e-39 -0.044910625 0.99801284 -0.044197675 0
0.076103367 0.012902337 -0.22375621 9.1204912e-39 -0.023668639 0.99575871 -0.088906981 0
0.082324386 0.013412775 -0.22223642 9.3967137e-39 -0.070966132 0.99352646 -0.088707685 0
0.09361241 0.013248212 -0.22782242 7.4620516e-39 0.12846728 0.98820978 -0.083291866 0
0.099243581 0.012857527 -0.22506166 9.4903541e-39 0.082517639 0.9959029 -0.036990594 0
0.10699771 0.012173131 -0.22419235 9.8591352e-39 0.11906422 0.9922024 -0.03685315 0
-0.40789309 -0.01468252 -0.21834102 1.2623561e-38 -0.18055442 0.98356503 0 0
-0.39782199 -0.012766263 -0.21776557 1.2532796e-38 -0.21064177 0.97747451 -0.013175608 0
-0.39523295 -0.012164674 -0.21878171 1.2532441e-38 -0.24049413 0.97029328 -0.026336513 0
0.34763116 -0.012683802 -0.21724734 7.4631377e-39 0.29204252 0.95527923 0.046399269 0
0.35342047 -0.014365639 -0.21905997 6.7259398e-39 0.29204252 0.95527923 0.046399269 0
-0.39347351 -0.01172128 -0.21851259 1.2255854e-38 -0.24049413 0.97029328 -0.026336513 0
-0.38446429 -0.0094837118 -0.21654533 1.0965118e-38 -0.15241461 0.98787224 -0.029636167 0
-0.37994981 -0.008739708 -0.21976028 1.0133926e-38 -0.15244508 0.98806977 0.021878669 0
-0.37469879 -0.0079027498 -0.2208994 1.0226479e-38 -0.15998249 0.98667598 0.029600248 0
-0.37104553 -0.0074020834 -0.21616855 1.0596336e-38 -0.15241461 0.98787224 -0.029636167 0
-0.36403027 -0.0073379199 -0.21912855 1.0135002e-38 -4.475359e-10 0.99994999 0.0099994792 0
-0.35704038 -0.0073331855 -0.21836062 1.0226118e-38 -0.044812206 0.99854618 0.029956354 0
-0.34920239 -0.006605316 -0.22108653 9.8587737e-39 -0.087513715 0.99573553 0.02919201 0
-0.34503299 -0.0062935082 -0.21914595 1.0504503e-38 -0.10710674 0.99304223 0.048942756 0
0.27182266 -0.0060234731 -0.21683234 8.9371915e-39 0.06486313 0.99789417 0 0
0.28107405 -0.0060690679 -0.21882504 8.2929025e-39 0.0021421215 0.99964869 0.026419263 0
0.28301841 -0.0060633933 -0.21919742 8.4765735e-39 0.0021421215 0.99964869 0.026419263 0
0.29315868 -0.0063279578 -0.21703067 8.3840178e-39 0.032126248 0.99948382 0 0
0.29453462 -0.006372184 -0.22124094 8.0152352e-39 0.032126248 0.99948382 0 0
0.30307433 -0.0067665572 -0.21896249 7.7390043e-39 0.089574434 0.99598014 0 0
0.30735144 -0.007153186 -0.2193241 7.8311999e-39 0.090728134 0.99587572 0 0
0.31210032 -0.0075858282 -0.22197621 7.5553333e-39 0.090728134 0.99587572 0 0
0.32024819 -0.0084872795 -0.21990252 7.6475317e-39 0.12054313 0.99270815 0 0
0.32789114 -0.0094153499 -0.21805426 8.1085113e-39 0.12054313 0.99270815 0 0
0.33312061 -0.0099984966 -0.21873407 6.725937e-39 0.12256477 0.99185318 0.034714796 0
0.34007588 -0.010926791 -0.21656232 7.830844e-39 0.12261786 0.99228287 0.018428121 0
0.34502226 -0.011851002 -0.21797247 7.7397245e-39 0.29204252 0.95527923 0.046399269 0
-0.33973184 -0.0058353022 -0.21878037 1.068854e-38 -0.070531711 0.99741799 0.01351921 0
-0.33277684 -0.0052821655 -0.22054896 1.0412672e-38 -0.070453063 0.99630576 0.049103603 0
-0.32868758 -0.0051622684 -0.21659324 1.0411949e-38 -0.064133145 0.99766421 -0.023516908 0
-0.31967127 -0.0045698383 -0.22074746 1.0595977e-38 -0.044227701 0.99892962 0.013546275 0
-0.3138206 -0.0042502661 -0.22165957 1.0688896e-38 -0.10934049 0.99400443 0 0
-0.30882484 -0.0037007334 -0.22098449 1.1057678e-38 -0.10934049 0.99400443 0 0
-0.29751968 -0.0026322207 -0.21997362 9.8576961e-39 -0.062022965 0.99807072 -0.0028516331 0
-0.28278148 -0.0010239922 -0.22043663 9.7662235e-39 -0.18308036 0.98204005 0.045594677 0
0.22966318 -0.0028237791 -0.22110426 7.6486093e-39 0.19787689 0.97889704 -0.051042438 0
0.23713021 -0.0038774987 -0.21992287 8.200344e-39 0.13638374 0.98931211 -0.051585507 0
0.24421333 -0.0047425702 -0.22154361 1.0505596e-38 0.08540114 0.99634665 0 0
0.24758989 -0.004880297 -0.2185224 1.0597789e-38 0.027132874 0.99963188 0 0
0.25543967 -0.0050991429 -0.22190903 8.7531562e-39 0.031412788 0.99949735 -0.0042835558 0
0.26343334 -0.0054977993 -0.22158103 8.4772924e-39 0.064862534 0.99788505 -0.0042766454 0
-0.27426669 0.00048760572 -0.22006305 9.5818323e-39 -0.16544612 0.98583734 0.027428821 0
-0.26416546 0.0011535977 -0.21883124 9.8584192e-39 -0.054196592 0.99835819 0.018540921 0
-0.26208127 0.0012517219 -0.21913251 9.7662249e-39 -0.034609165 0.99940032 -0.0010837036 0
-0.25782773 0.0014253635 -0.21771589 9.7658704e-39 -0.034258243 0.99919868 -0.020697664 0
-0.24865845 0.0016939671 -0.21935837 9.6743908e-39 -0.0096541084 0.99892735 -0.045286853 0
-0.24232231 0.0017835487 -0.21906668 9.4903583e-39 -0.017094458 0.99717629 -0.073124565 0
-0.2355922 0.0018664676 -0.21949726 9.2137686e-39 -0.017098518 0.99741316 -0.069818854 0
-0.2273642 0.0023564633 -0.22029193 9.7669424e-39 -0.15176295 0.98364973 -0.096959673 0
-0.21979561 0.0037328373 -0.21812388 9.4903555e-39 -0.15187235 0.98435873 -0.089290023 0
-0.21404907 0.0043061981 -0.22099626 9.3066845e-39 -0.12634587 0.9881798 -0.086818576 0
0.18459634 0.0056588687 -0.21992087 9.8594996e-39 0.10593371 0.9887144 -0.10593361 0
0.21403471 0.0024596099 -0.21687284 9.6743908e-39 0.13870129 0.98569429 -0.095753163 0
0.21878164 0.0012965671 -0.21754101 9.2130526e-39 0.32516947 0.92716426 -0.18609494 0
-0.20034198 0.006294969 -0.21820232 8.5680433e-39 -0.099132799 0.9945246 -0.033067901 0
-0.19355233 0.0069085644 -0.22010271 9.2137644e-39 -0.099132799 0.9945246 -0.033067901 0
-0.18414655 0.0072059566 -0.22117998 8.7524317e-39 0.013921797 0.99951535 -0.027843595 0
-0.17742993 0.007292348 -0.21853477 8.7520688e-39 0.0014265896 0.99860495 -0.05278324 0
-0.17059672 0.0073299878 -0.21733242 8.382936e-39 -0.0014149219 0.99043769 -0.13795359 0
-0.16428888 0.0072085001 -0.21863595 8.752073e-39 0.0072043957 0.99813628 -0.060597807 0
-0.15815425 0.0071662678 -0.21854626 9.027941e-39 -0.012470402 0.99267805 -0.12014499 0
-0.15110037 0.0071478751 -0.21965757 9.0286599e-39 -0.0099269245 0.99357557 -0.1127345 0
-0.14415415 0.007366959 -0.21898733 9.9498903e-39 -0.081089534 0.98717695 -0.1374995 0
-0.14190695 0.0076857125 -0.21802412 1.0225758e-38 -0.081089534 0.98717695 -0.1374995 0
-0.13055302 0.0084474161 -0.21844871 1.0686729e-38 -0.035440478 0.9940421 -0.103074 0
-0.12117694 0.0084622791 -0.22058482 1.0964042e-38 -0.023436135 0.99425954 -0.10439716 0
-0.11742853 0.0088132061 -0.21791311 8.1988978e-39 -0.012075576 0.99446017 -0.10441823 0
-0.11002965 0.0086202277 -0.22060664 1.1885999e-38 -0.012075576 0.99446017 -0.10441823 0
-0.10158984 0.0090985326 -0.21837613 9.1194108e-39 -0.05807545 0.99153227 -0.11615081 0
-0.087433293 0.009549438 -0.21982187 8.6584326e-39 3.6236611e-09 0.99320865 -0.11634715 0
-0.076031916 0.009766507 -0.21966349 8.2896543e-39 -0.034434441 0.99863654 -0.039232116 0
-0.05163414 0.010951396 -0.21830001 8.6591543e-39 -0.070407316 0.9956848 -0.060454048 0
-0.044893052 0.011234897 -0.21824676 9.2119665e-39 -0.021367079 0.99712873 -0.072647594 0
-0.034773044 0.01123067 -0.22111337 1.0503427e-38 -0.0064093256 0.99723172 -0.074080035 0
-0.029634617 0.011267513 -0.22004901 9.5803903e-39 0.0085475612 0.99721581 -0.07407885 0
-0.012895489 0.011348168 -0.21762076 1.0041366e-38 -3.5675649e-09 0.99337161 -0.11494718 0
-0.0081575615 0.010928955 -0.22083102 1.1701958e-38 0.017697211 0.99104178 -0.13237479 0
-0.0027709298 0.011528252 -0.21922001 1.2532441e-38 -0.09444762 0.98676622 -0.13180369 0
0.041814711 0.011877039 -0.22050349 9.0286585e-39 0.066087022 0.99485809 -0.076746114 0
0.045676116 0.011751261 -0.22011846 9.3059628e-39 0.022732003 0.99918222 -0.033437472 0
0.050587423 0.011834411 -0.21983452 9.489638e-39 -0.085396878 0.99629724 0.0099629723 0
0.1138522 0.011518702 -0.21966632 1.0504507e-38 0.11906422 0.9922024 -0.03685315 0
0.1180158 0.011056138 -0.21778852 9.5821882e-39 0.14005548 0.98830342 -0.060339428 0
0.1217955 0.010526218 -0.21724869 9.6743824e-39 0.16108042 0.98477089 -0.065416865 0
0.12660456 0.0095930416 -0.21945484 1.0227199e-38 0.16108042 0.98477089 -0.065416865 0
0.13926978 0.0081541082 -0.21893434 1.0688896e-38 0.067488216 0.99456328 -0.079304352 0
0.1654433 0.0068489709 -0.22140501 9.7676585e-39 -7.7284246e-10 0.99941278 -0.034265578 0
0.17140628 0.0069356528 -0.21887679 9.5832672e-39 -7.7284246e-10 0.99941278 -0.034265578 0
0.0027090963 0.012144035 -0.21853673 1.0871478e-38 -0.09444762 0.98676622 -0.13180369 0
0.0064072451 0.012656677 -0.21734878 1.2070379e-38 -0.09444762 0.98676622 -0.13180369 0
0.013652603 0.012564457 -0.21793522 1.225586e-38 0.017075645 0.99607933 -0.086801119 0
0.022689141 0.012177601 -0.22192875 9.1208541e-39 -0.0056996467 0.99744254 -0.071245834 0
0.028182071 0.012462322 -0.21819453 9.5818309e-39 -0.0057056621 0.99849498 -0.054545265 0
0.063023433 0.012779508 -0.21943301 1.0043165e-38 -0.035872016 0.99793875 -0.053210847 0
0.074664831 0.0132874 -0.21938112 9.8587737e-39 0 0.99603772 -0.088931903 0
0.079838812 0.013705389 -0.21683356 9.0286557e-39 -0.071238257 0.99733621 -0.015672483 0
0.0891141 0.014228048 -0.21855745 9.121573e-39 -0.073452845 0.99356407 -0.08622703 0
0.093483843 0.014139391 -0.21712494 8.3836506e-39 0.12877284 0.99056023 -0.046989199 0
0.098642342 0.013160498 -0.22110505 9.0293746e-39 0.12846728 0.98820978 -0.083291866 0
-0.41213816 -0.015386896 -0.21364164 1.2071821e-38 -0.15172523 0.98797822 -0.029639311 0
-0.40792316 -0.014688037 -0.21522389 1.2256576e-38 -0.1805544 0.98356503 0 0
-0.40100926 -0.013418845 -0.21539612 1.2532793e-38 -0.1805544 0.98356503 0 0
-0.39577994 -0.012166779 -0.21226111 1.2717187e-38 -0.26451606 0.96438128 0 0
-0.39178634 -0.011110256 -0.21117203 1.2348406e-38 -0.24853939 0.96847081 -0.017098386 0
-0.38552451 -0.0096486397 -0.21467797 1.2348405e-38 -0.24049847 0.97031075 -0.025643963 0
-0.37539828 -0.0080189342 -0.21434467 1.0964764e-38 -0.15241461 0.98787224 -0.029636167 0
-0.3707599 -0.0073025166 -0.21308388 1.0319749e-38 -1.0974095e-09 0.99955034 -0.02998651 0
-0.35710359 -0.0072295372 -0.21305235 1.0227197e-38 -0.044812202 0.99854618 -0.029956384 0
-0.34899732 -0.0066316216 -0.21448413 1.0596339e-38 -0.087511964 0.99571556 -0.029871466 0
-0.34440592 -0.0062588477 -0.21550946 1.0595257e-38 -0.087511964 0.99571556 -0.029871466 0
0.27714258 -0.0061088772 -0.21517397 8.6606046e-39 0.0021428689 0.99999774 0 0
0.2897647 -0.006218865 -0.2151902 8.1996265e-39 0.032126248 0.99948382 0 0
0.3032077 -0.00704965 -0.21251719 7.9233955e-39 0.090749487 0.99398428 0.061316822 0
0.31789067 -0.0082086567 -0.21054183 7.6468058e-39 0.11844568 0.99295825 0.0021278171 0
0.32119861 -0.0086026862 -0.21435519 7.6468086e-39 0.12054313 0.99270815 0 0
0.33509198 -0.010348932 -0.21451558 7.830844e-39 0.12261786 0.99228287 0.018428121 0
-0.32970822 -0.0051390873 -0.21243896 1.0596699e-38 -0.070520952 0.99726588 -0.022082319 0
-0.32222334 -0.0046635992 -0.21162713 1.0411945e-38 -0.057742577 0.9980197 -0.024950486 0
-0.31266284 -0.0040585031 -0.21382257 1.1149877e-38 -0.10298852 0.99437189 -0.024859291 0
-0.31000471 -0.0037960759 -0.21514542 1.0873287e-38 -0.10932186 0.99383503 -0.01845693 0
-0.3022992 -0.0028843968 -0.21169521 1.0965481e-38 -0.10932186 0.99383503 -0.01845693 0
-0.29891634 -0.0025902593 -0.21020409 1.0595981e-38 -0.059171639 0.99807572 -0.018535687 0
-0.29044512 -0.0021299496 -0.21355478 9.6740251e-39 -0.062015578 0.99795192 -0.015682107 0
-0.28699544 -0.0019383153 -0.21502344 9.9506148e-39 -0.13585462 0.99060655 -0.01556668 0
-0.28193858 -0.0010632358 -0.21590301 9.6740279e-39 -0.18317123 0.98252755 0.032984853 0
0.24270082 -0.0042112526 -0.2142814 9.3985284e-39 0.12407215 0.98720807 -0.10013109 0
0.25428516 -0.0048982482 -0.21096608 1.0229367e-38 0.027122892 0.99926412 -0.027122892 0
0.25877506 -0.0050146701 -0.21076542 1.0136815e-38 0.027122892 0.99926412 -0.027122892 0
0.26470906 -0.0055270204 -0.21003585 9.0293872e-39 0.091720685 0.99541819 -0.027018504 0
-0.27402833 0.00024604783 -0.21097574 9.8573402e-39 -0.18317123 0.98252755 0.032984853 0
-0.2667881 0.0008871319 -0.21244204 9.9495358e-39 -0.061642371 0.9977594 0.026008107 0
-0.25386631 0.0015339325 -0.21137756 9.8584192e-39 -0.046370644 0.99875212 0.018548256 0
-0.24874926 0.0017208118 -0.21223339 9.8584164e-39 -0.034264881 0.99939215 0.0064246631 0
-0.23769213 0.0021323813 -0.2154112 9.7669424e-39 -0.017085774 0.99666977 -0.079733588 0
-0.22953802 0.0025317087 -0.21472543 1.0136085e-38 -0.15475516 0.98480654 -0.078784525 0
-0.22790006 0.0031439112 -0.21029031 1.0136085e-38 -0.15475516 0.98480654 -0.078784525 0
-0.21960798 0.0041097291 -0.21419871 9.1222933e-39 -0.15197271 0.98500931 -0.081615068 0
-0.21393749 0.004828155 -0.21511009 9.3988759e-39 -0.12639855 0.98859185 -0.081911899 0
-0.20744719 0.0058382782 -0.21293418 9.4899996e-39 -0.12639855 0.98859185 -0.081911899 0
0.18826762 0.00588689 -0.2141214 9.7673025e-39 0.10593371 0.9887144 -0.10593371 0
0.19600727 0.005860846 -0.21062183 9.5829113e-39 0.10496863 0.9797073 -0.17074899 0
0.20186582 0.0049230456 -0.21240106 1.0044245e-38 0.10496863 0.9797073 -0.17074899 0
0.20569903 0.0044261483 -0.21118109 9.859138e-39 0.20984338 0.96321541 -0.16787469 0
0.21530807 0.0024119799 -0.21551868 9.2137686e-39 0.13870129 0.98569429 -0.095753163 0
0.21974833 0.0014978304 -0.21490142 9.3974438e-39 0.32488579 0.92635542 -0.19056456 0
-0.20437565 0.0061508557 -0.21476471 8.9368258e-39 -0.20384784 0.96577525 -0.16038795 0
-0.20192833 0.0065954006 -0.21447951 6.6326511e-39 -0.097859852 0.981754 -0.16304159 0
-0.19380507 0.0072829435 -0.21449822 9.3985214e-39 -0.028340772 0.99708688 -0.07081303 0
-0.18931179 0.0074543701 -0.21435031 9.0290172e-39 -0.013824646 0.99865079 -0.050053291 0
-0.18326998 0.0075731035 -0.21221778 8.6598732e-39 0.0014274394 0.99919993 -0.03996804 0
-0.17099693 0.0076243556 -0.21298328 9.0286571e-39 -0.015697075 0.99840719 -0.054191437 0
-0.16137215 0.0076425895 -0.21330865 9.0286557e-39 -0.0014252341 0.99765623 -0.068410717 0
-0.15445344 0.0078324899 -0.21027422 8.8442672e-39 0.0028503926 0.99765325 -0.068410508 0
-0.14462478 0.0076821013 -0.21507511 1.0041731e-38 -0.081802145 0.99585223 -0.039834064 0
-0.14036863 0.0081858905 -0.21133284 1.0134279e-38 -0.073758326 0.99612463 -0.047911163 0
-0.1217097 0.0089854226 -0.21454933 8.3822157e-39 -0.023515303 0.99761826 -0.064845189 0
-0.11745992 0.0091725988 -0.2132616 8.9350209e-39 -0.02565168 0.99756581 -0.064841785 0
-0.11058988 0.0093254866 -0.2127572 9.8569772e-39 -0.012104648 0.99685448 -0.078324288 0
-0.103668 0.0092901373 -0.21421643 9.0272166e-39 -0.018817892 0.99749082 -0.068248644 0
-0.0914331 0.0099706193 -0.21283635 9.0272152e-39 -0.058448605 0.99790329 -0.027798781 0
-0.081229933 0.0099407835 -0.21529806 8.6591529e-39 0 0.99936289 -0.035691541 0
-0.075539708 0.010181013 -0.21273094 8.935744e-39 -0.068826541 0.99699301 -0.035606902 0
-0.062920064 0.010511245 -0.21324255 9.7647802e-39 -0.022224111 0.99320698 -0.11421878 0
-0.056965362 0.010930196 -0.21236648 9.8569786e-39 -0.069583312 0.99387211 -0.085886642 0
-0.049802024 0.011254249 -0.21586546 1.022683e-38 -0.083771706 0.99390191 -0.071702912 0
-0.045017518 0.011571343 -0.21349257 1.1148429e-38 -0.020301837 0.99727839 -0.070877939 0
-0.03831517 0.011547958 -0.21587147 1.2162217e-38 -0.021371415 0.99733114 -0.069813184 0
-0.034939647 0.011786662 -0.21349902 1.2254415e-38 -0.026354875 0.99721247 -0.069804884 0
-0.026423298 0.011825267 -0.21358302 1.1332814e-38 0.0085242549 0.99449658 -0.10442213 0
-0.016948676 0.011735331 -0.21496561 1.1332456e-38 0 0.98819971 -0.15317093 0
0.1238992 0.010665731 -0.21278104 9.950612e-39 0.16047117 0.9810462 -0.10861585 0
0.12708408 0.010402079 -0.210457 9.4903527e-39 0.16047117 0.9810462 -0.10861585 0
0.14148359 0.0085629607 -0.21286145 1.0873287e-38 0.067342862 0.99242121 -0.10278649 0
0.14879753 0.0080691129 -0.21261463 1.1428257e-38 0.080027312 0.99148899 -0.10268993 0
0.15163022 0.0080745509 -0.21035457 1.1980352e-38 0.080027312 0.99148899 -0.10268993 0
0.15862691 0.007514067 -0.21200609 9.5839903e-39 0.054045778 0.99558043 -0.076801911 0
0.16278265 0.0073401639 -0.21259047 9.4003179e-39 0 0.99703771 -0.076914333 0
0.1723232 0.0072346856 -0.21363053 1.0321553e-38 0.013552004 0.99789441 -0.063428417 0
0.17862104 0.0071160868 -0.21105723 9.5839903e-39 0.049875457 0.99750936 -0.049875457 0
0.18821685 0.0061643678 -0.21158236 9.7673053e-39 0.10593371 0.9887144 -0.10593371 0
-0.022452652 0.01207614 -0.21086963 1.2346974e-38 0.0085242549 0.99449658 -0.10442213 0
-0.00069092645 0.012095755 -0.21427996 9.8576947e-39 -0.09524589 0.99510634 -0.02629921 0
0.0056047044 0.012805347 -0.21023092 9.6747468e-39 -0.09524589 0.99510634 -0.02629921 0
0.013403265 0.012934467 -0.21226273 9.2130469e-39 0.017109577 0.99805874 -0.059883516 0
0.021087514 0.012849648 -0.21148191 8.198895e-39 0.016396901 0.99807072 -0.059884239 0
0.026224945 0.012772266 -0.21175367 9.8584206e-39 0.005344063 0.99879122 -0.048862796 0
0.033651669 0.012851922 -0.21014193 1.1702329e-38 -0.0057100798 0.99926794 -0.037829425 0
0.036431141 0.012802411 -0.21330048 9.4899926e-39 -0.043499064 0.99833834 -0.037794229 0
0.051032629 0.012318059 -0.21348213 8.9368202e-39 -0.01921948 0.99120349 -0.13094325 0
0.058765274 0.012758726 -0.21450081 9.1208513e-39 -0.084974363 0.99136794 -0.099844925 0
0.063568145 0.013312023 -0.21211138 8.7520702e-39 -0.050334152 0.99370539 -0.10008034 0
0.072498687 0.013409957 -0.21542476 8.659876e-39 -0.044840541 0.99645543 -0.071175337 0
0.08956299 0.014451566 -0.21355028 1.0227199e-38 -0.071238257 0.99733621 -0.015672483 0
0.090085626 0.014476338 -0.21434948 9.9506148e-39 -0.071238257 0.99733621 -0.015672483 0
0.10116147 0.013239889 -0.21131788 1.0135355e-38 0.12890798 0.99159968 -0.010624331 0
0.10666756 0.012616565 -0.21124779 1.1795243e-38 0.074785657 0.99714243 -0.010683718 0
-0.41063669 -0.014900537 -0.20511562 1.0411947e-38 -0.15172523 0.98797822 -0.029639311 0
-0.39813647 -0.01281315 -0.20862113 1.2716108e-38 -0.26451606 0.96438128 0 0
-0.37685996 -0.0080667138 -0.20836072 1.1518295e-38 -0.15587322 0.9874323 -0.026096461 0
-0.36879751 -0.0071716346 -0.20872113 1.0227553e-38 -1.0974095e-09 0.99955034 -0.02998651 0
-0.36163247 -0.0071382215 -0.20760736 1.0043165e-38 -1.0974095e-09 0.99955034 -0.02998651 0
-0.35704789 -0.0070709651 -0.20536549 1.041087e-38 0 0.99955034 -0.02998651 0
-0.35069895 -0.0066447542 -0.20986566 1.0595257e-38 -0.088187881 0.99566942 -0.029416922 0
-0.3457675 -0.0060693389 -0.20517357 1.0595261e-38 -0.088187881 0.99566942 -0.029416922 0
0.27471212 -0.0061036688 -0.20499507 8.2918221e-39 0.0021428689 0.99999774 0 0
0.28558767 -0.0061269738 -0.20683032 7.9237585e-39 0.0021428689 0.99999774 0 0
0.29112625 -0.0063293511 -0.20733723 8.1074309e-39 0.062457524 0.99758482 0.030392319 0
0.29814962 -0.0068360521 -0.2084409 8.0155912e-39 0.091044299 0.99402618 0.060190562 0
0.30307019 -0.0073244972 -0.20771092 7.8315614e-39 0.063273661 0.9974494 0.033033647 0
0.31013358 -0.0077213007 -0.2073079 7.8311999e-39 0.030699775 0.99952638 0.002141891 0
0.32392251 -0.0089371847 -0.20633256 7.6468086e-39 0.11844568 0.99295825 0.0021278171 0
0.32575309 -0.0091593042 -0.20458075 8.1077868e-39 0.11844568 0.99295825 0.0021278171 0
0.33911863 -0.010982093 -0.20659067 7.6471702e-39 0.13470159 0.9908672 0.0061431658 0
-0.34112811 -0.0057951333 -0.20809312 1.0319752e-38 -0.062705256 0.99758327 -0.029927496 0
-0.33409432 -0.0053195879 -0.2069791 1.0135722e-38 -0.062705256 0.99758327 -0.029927496 0
-0.32498902 -0.0047363285 -0.2075095 1.0596335e-38 -0.06058789 0.99791825 -0.022096764 0
-0.32161212 -0.00452442 -0.20719862 1.0504493e-38 -0.06058789 0.99791825 -0.022096764 0
-0.31690103 -0.0043071667 -0.20968714 1.0505222e-38 -0.057742577 0.9980197 -0.024950486 0
-0.30893919 -0.0035538864 -0.20906456 1.0781094e-38 -0.10298852 0.99437189 -0.024859291 0
-0.30535191 -0.0031011342 -0.20581594 1.0873287e-38 -0.10298852 0.99437189 -0.024859291 0
-0.29756278 -0.0024138128 -0.20502418 1.0781092e-38 -0.059171639 0.99807572 -0.018535687 0
-0.27981949 -0.00080622279 -0.20560779 9.7662221e-39 -0.13585462 0.99060655 -0.01556668 0
0.23192661 -0.0006462998 -0.20517665 9.2126966e-39 0.26242489 0.94516075 -0.19443308 0
0.2376176 -0.0021177181 -0.205505 8.7524373e-39 0.23077439 0.95305049 -0.19605613 0
0.24601886 -0.0038601123 -0.20661604 5.9876559e-39 0.10040092 0.98986834 -0.10040092 0
0.26909962 -0.0058406964 -0.20854954 8.8446358e-39 0.073827602 0.99723029 -0.0090076262 0
-0.27104726 0.00046779716 -0.20784043 9.9495358e-39 -0.069081277 0.99704933 0.033472374 0
-0.26178566 0.0010588843 -0.2068464 9.5818323e-39 -0.059161086 0.99797136 0.02351925 0
-0.25469413 0.001389752 -0.20568351 1.0041734e-38 -0.046370644 0.99875212 0.018548256 0
-0.24779814 0.0017356792 -0.20947357 9.7662207e-39 -0.034264881 0.99939215 0.0064246631 0
-0.23603347 0.0027429727 -0.20677932 9.7669396e-39 -0.10301825 0.99465889 0.006394235 0
-0.23173873 0.0030167724 -0.20666845 9.7665837e-39 -0.091844149 0.99447513 -0.050832167 0
-0.21458697 0.0051946878 -0.20968421 8.3840079e-39 -0.12639855 0.98859185 -0.081911899 0
0.20833291 0.0049347244 -0.20497066 9.9513295e-39 0.20984338 0.96321541 -0.16787469 0
0.21245937 0.0034077072 -0.20939493 9.3052482e-39 0.13870129 0.98569429 -0.095753163 0
0.21883728 0.0025571778 -0.20699348 9.3974438e-39 0.23429954 0.96760964 -0.093996376 0
0.22362968 0.0015056249 -0.20587254 9.2130526e-39 0.23429954 0.96760964 -0.093996376 0
0.22937132 0.00017404671 -0.2049306 8.4765693e-39 0.32488579 0.92635542 -0.19056456 0
-0.21203506 0.0060702208 -0.20542623 1.0689262e-38 -0.18963149 0.97246748 -0.13545121 0
-0.20452389 0.0070166611 -0.20911923 9.4899996e-39 -0.15541834 0.98159117 -0.1110132 0
-0.18521059 0.0077859042 -0.20468286 8.9364629e-39 -0.0092813736 0.99952841 -0.029271895 0
-0.17878488 0.0078052906 -0.20602024 8.6598746e-39 -0.00392708 0.99939281 -0.034620959 0
-0.16897082 0.0078645376 -0.20915844 9.1208513e-39 -0.029962536 0.99875236 -0.03995014 0
-0.16668849 0.0079980642 -0.207532 9.0286585e-39 -0.029962536 0.99875236 -0.03995014 0
-0.15843552 0.0081731956 -0.20547155 9.1204912e-39 0.0028503926 0.99765325 -0.068410508 0
-0.15047221 0.0080122752 -0.2075541 9.5811078e-39 -0.0014256382 0.99793905 -0.064153254 0
-0.1462118 0.0080334432 -0.20805983 1.05949e-38 -0.029545458 0.99750435 -0.064125314 0
-0.12949519 0.0091783218 -0.20579778 9.2126882e-39 -0.048475605 0.99802625 -0.039921023 0
-0.12267016 0.0095234476 -0.20541216 9.673302e-39 -0.036001053 0.9979775 -0.052391253 0
-0.10955078 0.0097781746 -0.20688623 9.3960005e-39 -0.018879026 0.99725574 -0.071586303 0
-0.097096361 0.0097276838 -0.20964977 8.3818457e-39 -0.058448605 0.99790329 -0.027798781 0
-0.090132251 0.010246156 -0.20410073 8.7506325e-39 -0.0078538153 0.9995814 -0.02784553 0
-0.084895492 0.010235965 -0.20594352 8.1052631e-39 -0.0078538153 0.9995814 -0.02784553 0
-0.082673632 0.010206673 -0.20762172 8.0127115e-39 -0.0078538153 0.9995814 -0.02784553 0
-0.077015013 0.010215491 -0.20760624 8.8424722e-39 0 0.99936289 -0.035691541 0
-0.06338042 0.011422303 -0.20516619 9.2112477e-39 -0.026949923 0.99309152 -0.11420552 0
0.1177824 0.011828221 -0.204757 9.8587751e-39 0.11896328 0.9913612 -0.055233013 0
0.12540412 0.010973307 -0.2049993 9.3977969e-39 0.10777197 0.9926362 -0.055304047 0
0.14179336 0.0091731884 -0.20685957 1.05967e-38 0.074338272 0.99117684 -0.10973746 0
0.14493912 0.0086691072 -0.20957263 1.1335704e-38 0.067342862 0.99242121 -0.10278649 0
0.15271544 0.0081861541 -0.20843129 1.1520453e-38 0.080027312 0.99148899 -0.10268993 0
0.16766278 0.0077630864 -0.20572133 1.0413028e-38 0.027099047 0.99838555 -0.049919266 0
0.17881244 0.0072912276 -0.20736301 1.0229358e-38 0.049875457 0.99750936 -0.049875457 0
0.18925853 0.0065025012 -0.20765854 9.86058e-39 0.061835475 0.99240637 -0.10632927 0
-0.045227431 0.01218562 -0.20490089 1.1515773e-38 -0.019232219 0.99722338 -0.071942538 0
-0.034113798 0.012402097 -0.20501892 1.2993425e-38 -0.026354875 0.99721247 -0.069804884 0
-0.025622204 0.01251106 -0.2064998 1.2070024e-38 -0.0089180116 0.99615616 -0.087139897 0
-0.019623013 0.012304164 -0.20923509 1.2254778e-38 -0.049665246 0.99330539 -0.10429704 0
-0.016185645 0.012670015 -0.20738764 1.2069668e-38 -0.049665246 0.99330539 -0.10429704 0
-0.008543646 0.012576065 -0.20954151 1.2532085e-38 0 0.98819971 -0.15317093 0
-0.0018380311 0.012619733 -0.20816554 9.2130469e-39 0.032452308 0.98767924 -0.15309027 0
